0.000000 3.821060 -17.691401 
9.486420 8.010760 9.258860 
7.454980 9.539680 10.873100 
5.810080 10.100100 11.512300 
4.700420 10.295800 11.830600 
8.824900 8.825060 10.034400 
3.171140 3.809800 -17.269800 
4.433520 3.807320 -16.891100 
6.356420 3.659540 -16.040501 
8.208560 3.302540 -14.782900 
9.436580 3.053760 -13.563900 
11.042000 2.409340 -11.255100 
11.866700 1.582940 -8.928480 
1.452590 3.794380 -17.594200 
2.123940 10.597200 12.126800 
0.763104 10.586100 12.188400 
0.609394 3.779360 -17.656799 
0.000000 -2.877560 -16.775299 
11.887800 -3.812400 -6.351980 
11.368900 -3.592500 -8.142800 
11.997900 -4.621020 -4.984100 
2.745740 -2.854800 -16.442200 
3.939380 -2.855800 -16.156700 
6.013460 -2.780660 -15.384300 
7.870540 -2.835440 -14.106200 
9.167120 -2.965640 -12.716600 
10.670000 -3.317120 -10.260000 
12.184100 -4.199420 -4.077020 
12.420700 -1.878800 -2.971080 
12.338900 -2.288140 -3.564540 
12.912100 -2.925860 -3.863040 
12.517000 -2.662720 -3.997840 
13.494100 -2.969280 -3.530380 
13.793900 -3.395740 -3.567940 
13.781700 -4.097340 -3.929280 
13.803100 -4.757100 -4.260080 
13.720800 -5.150300 -4.479900 
13.429700 -5.341980 -4.663640 
13.087100 -5.195380 -4.645340 
12.925900 -4.877560 -4.435580 
12.828100 -4.512720 -4.166320 
12.644500 -4.343500 -4.049620 
12.356100 -4.199140 -3.982860 
1.212110 -2.863600 -16.683300 
0.511358 -2.881540 -16.735901 
11.746400 -4.639520 -6.143480 
3.820920 -3.773860 -15.849100 
5.936640 -3.719100 -15.088000 
7.825080 -3.751820 -13.803700 
9.113660 -3.866900 -12.417400 
10.549900 -4.187100 -9.983120 
1.142960 -3.749000 -16.372801 
0.483446 -3.760140 -16.425699 
0.000000 -3.765980 -16.464800 
11.188500 -4.435260 -7.977720 
2.633740 -3.759140 -16.134701 
7.067460 -5.061500 11.989000 
6.768380 0.912422 11.798500 
6.761500 0.907064 11.726700 
7.360020 -2.885260 12.004000 
7.281440 -3.884180 12.036300 
6.845960 0.844616 11.945400 
6.910520 0.426606 11.814600 
6.998060 -0.093910 11.689200 
7.209740 -0.788458 11.762100 
7.282520 -1.412380 11.851000 
12.274700 -3.499060 -1.072220 
12.095700 -3.500180 -0.507176 
11.990800 -3.554860 -0.010591 
11.892400 -3.642560 0.511502 
11.497900 -6.395580 -1.235980 
10.779000 -8.266840 -0.962188 
9.290960 -11.486000 -0.512118 
8.425420 -13.762800 -0.747780 
7.814940 -15.718800 -0.855620 
10.275700 -9.348240 -0.801488 
11.134600 -7.327740 -1.087610 
11.074600 3.178560 6.567060 
11.248300 1.536030 6.588880 
10.989800 1.556640 7.525700 
8.557140 -8.719920 -10.901200 
10.478500 -9.705000 -5.382280 
10.626600 -9.849680 -3.719060 
10.533000 -10.133500 -2.311440 
10.078000 -10.413800 -1.241270 
3.233240 -8.400980 -13.877300 
5.351460 -8.470180 -13.240000 
10.441500 -10.041900 0.861690 
0.000000 -8.211580 -14.192400 
7.352780 -8.596780 -12.062200 
10.613700 -9.965960 1.290980 
10.186800 -10.112400 0.462644 
9.682400 -10.201000 -0.090331 
9.956520 -9.376440 -7.271760 
9.655840 -9.010120 -8.988760 
2.232220 -8.338300 -14.036900 
0.978500 -8.255080 -14.152900 
0.417770 -8.223060 -14.171700 
9.803560 -10.327100 -0.635624 
10.154200 5.076780 8.951540 
9.922200 4.108640 9.703700 
8.179420 1.548130 10.830800 
8.160660 1.547510 10.639300 
8.206380 1.550490 10.542300 
8.296100 1.727820 10.767300 
8.395680 1.922940 10.606500 
8.462040 2.046320 10.513800 
8.637560 2.164120 10.528900 
9.036540 2.585660 10.539000 
9.596500 3.162100 10.313300 
8.046400 1.743160 11.077100 
8.173380 1.935740 10.993700 
8.269120 2.145860 10.807100 
8.323820 2.264200 10.711500 
8.489200 2.379180 10.747600 
8.850680 2.827740 10.831500 
9.359560 3.488940 10.688600 
9.953980 7.066380 8.607320 
9.825360 6.028020 9.399620 
9.639620 4.778840 10.107600 
7.997300 1.753700 10.895800 
8.038000 1.764980 10.805100 
10.101600 7.919700 7.701080 
0.000000 0.883530 14.643900 
1.921530 -0.067444 13.779600 
2.234080 -0.313690 13.559800 
10.016300 -1.012880 9.758200 
9.438500 -1.504330 10.423500 
8.752140 -1.868830 11.060700 
10.671100 0.126096 8.681100 
5.394280 -1.718180 12.513500 
4.220220 -1.357500 12.757600 
3.040820 -0.862442 13.110300 
1.628610 0.171889 13.998700 
1.062090 0.584634 14.431400 
0.436548 0.818360 14.630400 
3.574940 -1.105270 12.931300 
2.621640 -0.588868 13.331400 
10.410700 -0.468176 9.172620 
6.504720 -1.975570 12.241400 
8.048260 -2.053680 11.563000 
7.343660 -2.083380 11.934500 
1.083930 -13.971900 13.825500 
0.000000 -14.014400 13.813300 
4.627800 -13.871500 12.517000 
5.764880 -13.658300 11.407100 
3.892040 -13.957800 13.100000 
7.185780 -13.049900 9.642680 
7.620860 -12.703700 8.938460 
3.030380 -14.007400 13.629100 
1.996730 -13.974600 13.808700 
8.556060 -11.857500 7.363940 
9.029280 -11.351200 6.466580 
9.480160 -10.801200 5.523660 
9.897780 -10.222500 4.568700 
5.229020 -13.772400 11.957100 
6.732940 -13.318100 10.266200 
6.263840 -13.514500 10.850200 
8.081220 -12.307100 8.185400 
10.287700 -9.620260 3.608140 
12.121900 -1.115330 0.949316 
11.970600 -2.421740 1.121850 
11.779100 -3.727260 1.238550 
11.571700 -4.978720 1.338120 
11.348900 -6.211740 1.423460 
11.150400 -7.264160 1.511270 
10.956500 -8.217640 1.628760 
10.748200 -9.078640 1.818280 
10.533000 -9.824580 2.077160 
10.301900 -10.507800 2.412160 
12.014200 -1.297970 1.799130 
11.856900 -2.612420 1.937840 
11.665300 -3.872020 2.040140 
11.457500 -5.061640 2.122300 
11.248700 -6.188000 2.199420 
11.049100 -7.205700 2.291860 
10.849800 -8.128140 2.422760 
10.640200 -8.962740 2.612300 
10.416600 -9.713900 2.863680 
11.912100 -1.500690 2.700500 
11.745500 -2.829280 2.804020 
11.547000 -4.057280 2.871760 
11.336000 -5.184120 2.923180 
11.131800 -6.237180 2.975060 
10.934000 -7.203140 3.051940 
10.733000 -8.082040 3.179380 
10.519500 -8.883460 3.366180 
0.000000 16.178801 8.317800 
11.015800 7.317400 4.873380 
10.582200 9.254420 5.349800 
9.369620 12.498500 6.565860 
10.045600 10.994800 5.934020 
8.015300 13.824900 7.199180 
6.236820 14.974100 7.746420 
4.838620 15.487200 7.984360 
2.291180 16.056801 8.197020 
0.893526 16.155600 8.271860 
11.326100 5.315460 4.573700 
11.539700 3.366900 4.461180 
11.681400 1.502410 4.485660 
11.800900 -1.714860 3.662160 
11.620600 -3.068340 3.723660 
11.411500 -4.274400 3.736480 
11.194700 -5.346580 3.741460 
10.993500 -6.337480 3.746860 
10.801200 -7.244040 3.785160 
10.600300 -8.064900 3.901460 
11.648800 -1.923800 4.768160 
11.454400 -3.336960 4.741000 
11.237400 -4.532680 4.660800 
11.015600 -5.557740 4.590080 
10.822300 -6.491620 4.516100 
10.646800 -7.332880 4.472160 
12.335100 0.249480 -0.050909 
12.563500 0.198998 -1.298390 
12.679600 0.039309 -1.779180 
12.452800 0.236472 -0.737412 
10.756800 0.649402 8.429500 
11.070400 0.369332 7.699920 
11.348200 0.019578 6.798740 
12.221800 0.202710 0.745708 
12.113000 0.100930 1.633390 
12.006800 -0.029812 2.565740 
11.896800 -0.177592 3.534280 
11.760500 -0.301958 4.585160 
11.569100 -0.311298 5.740920 
0.000000 15.322800 -13.959300 
12.550600 3.279540 -6.010280 
12.622000 2.786820 -5.241480 
7.951340 13.083500 -12.865300 
5.861140 14.244900 -13.397000 
11.704700 7.978480 -9.742720 
10.463000 10.363500 -11.301300 
12.392300 5.448060 -7.808240 
4.571580 14.674600 -13.619100 
9.490540 11.707600 -12.090300 
2.364160 15.203200 -13.829500 
0.976322 15.305600 -13.913200 
0.000000 10.065600 -16.986700 
0.000000 13.090100 -15.732500 
12.479700 2.155300 -6.494200 
12.508200 2.575340 -6.366140 
12.783100 2.029260 -5.322020 
12.643800 2.340860 -5.520780 
7.019140 8.778760 -15.501400 
7.494020 11.237000 -14.411700 
5.057100 9.426320 -16.264299 
5.474040 12.188400 -15.062800 
11.234000 5.591340 -11.216300 
11.491700 6.899640 -10.724100 
9.850980 7.161980 -13.408500 
10.163300 8.944000 -12.616100 
12.087700 3.682100 -8.718780 
12.225700 4.551740 -8.409420 
3.788120 9.700740 -16.566401 
4.205880 12.589800 -15.317400 
8.738460 7.951480 -14.464500 
9.125420 10.069000 -13.525800 
1.894890 9.992260 -16.860001 
2.179160 13.032700 -15.580300 
0.805802 10.045000 -16.955900 
0.916474 13.107400 -15.683700 
0.000000 3.647800 13.373900 
2.611000 2.962680 12.468300 
1.588860 3.486080 13.215100 
0.698780 3.574180 13.339500 
3.190600 2.428160 11.455600 
2.886360 2.675480 11.935500 
1.870330 -4.712080 16.770500 
1.779830 -3.898660 16.761101 
1.530780 -3.112480 16.563999 
1.308960 -1.241680 15.271700 
1.338050 -0.176423 14.592500 
1.359530 0.848064 13.890200 
1.427660 1.743910 13.204600 
1.856990 2.730080 12.803600 
1.383250 1.296210 13.543600 
1.241430 -2.208840 15.930400 
1.600180 2.215540 12.950300 
1.356450 -2.676380 16.274799 
1.345350 0.378262 14.215100 
2.268620 3.309560 12.891800 
2.527100 6.916400 -17.205700 
3.275620 6.839140 13.027700 
3.355460 9.137560 12.510400 
3.548340 18.375500 3.657340 
3.602780 19.156300 0.019934 
3.476000 11.790500 11.407200 
3.552480 14.021400 10.172300 
3.567140 17.356800 5.884740 
3.642360 19.320999 -1.377560 
3.733340 19.110300 -5.466800 
3.817920 18.337799 -8.497460 
3.716420 16.854300 -11.592800 
2.232220 1.761870 -17.420601 
2.100960 -1.586850 -16.917900 
1.809160 -4.573700 -15.952400 
1.689700 -6.292800 -15.072100 
1.564550 -9.315920 -13.737300 
1.447110 -10.999800 -13.498500 
3.690480 19.251200 -3.781400 
3.666280 19.300200 -2.566720 
1.641820 -7.359380 -14.499900 
1.755910 -5.294620 -15.597400 
3.566140 18.825300 1.813120 
2.170640 0.044884 -17.189699 
3.412180 10.446500 11.978700 
2.311860 3.802080 -17.431999 
1.978930 -2.859200 -16.562700 
1.888350 -3.754060 -16.253700 
1.605360 -8.296700 -14.094900 
3.564900 15.772000 8.090700 
3.467880 14.938900 -13.724300 
2.841500 9.846500 -16.713200 
3.192520 12.811300 -15.448800 
-0.716778 -10.316700 14.591400 
-0.695652 -10.234200 14.468300 
-0.775558 -10.608100 14.753800 
-0.880390 -11.495300 14.760100 
-0.823990 -10.998500 14.809600 
-0.696604 -10.201400 14.434700 
-0.738894 -10.137100 14.580800 
-0.684008 -9.894240 14.854800 
-0.744036 -9.511860 15.140100 
-0.747308 -9.003720 15.281400 
-3.982540 -11.084000 13.245000 
-4.357620 -10.678300 12.652900 
-3.902220 -10.759800 13.249600 
-4.242880 -10.259600 12.551900 
-4.619600 -10.143600 12.279400 
-3.384420 -10.825900 13.866000 
-3.434580 -11.163300 13.862000 
-2.711240 -11.343400 14.337200 
-2.626740 -10.949100 14.371600 
-1.641430 -11.467500 14.651700 
-1.578430 -10.998400 14.724600 
-3.875500 -10.431300 13.122300 
-3.847540 -10.210700 12.975900 
-4.213160 -10.154500 12.442800 
-3.789300 -10.130700 12.908500 
-3.248480 -10.172600 13.603300 
-3.319860 -10.458000 13.755400 
-3.192100 -10.087000 13.533700 
-2.383200 -10.076300 13.995900 
-2.431460 -10.168800 14.093400 
-1.430400 -10.183300 14.368900 
-1.463090 -10.269100 14.488300 
-2.520080 -10.517100 14.273600 
-1.518170 -10.580600 14.655400 
-4.220080 -10.129400 12.448200 
-1.435710 -10.149900 14.323000 
-1.479970 -10.101700 14.436700 
-2.403140 -10.029600 14.016300 
-2.460840 -9.990640 14.140200 
-1.623360 -9.817200 14.702200 
-1.050410 -9.857920 14.814300 
-4.297860 -10.111600 12.517600 
-4.434900 -9.996160 12.651800 
-3.898160 -10.073400 13.017800 
-3.802580 -10.097000 12.930100 
-4.083120 -9.912100 13.202900 
-3.296320 -10.003500 13.697600 
-3.217280 -10.039100 13.579600 
-3.426180 -9.809320 13.983100 
-2.572920 -9.790100 14.431300 
-4.557360 -9.851800 12.743200 
-4.236720 -9.669900 13.345600 
-2.685980 -9.447360 14.696400 
-3.493060 -9.459480 14.288200 
-2.718420 -9.143780 14.832100 
-1.720130 -8.887740 15.162800 
-1.704670 -9.379940 14.956100 
-1.214080 -8.856680 15.262100 
-1.159560 -9.420340 15.080300 
-0.974484 -5.864420 15.889600 
-1.053320 -6.076860 15.221500 
-0.724196 -3.912920 17.643600 
-0.708584 -4.489400 17.709700 
-0.817852 -5.402000 17.038601 
-0.982886 -5.634420 16.453899 
-1.000090 -12.722500 13.557500 
-0.943546 -12.150100 13.700900 
-1.119120 -16.186701 14.076800 
-1.155070 -15.271600 14.117200 
-0.899382 -11.708600 14.565900 
-0.852084 -6.612520 14.720200 
-1.183390 -5.612560 16.236200 
-0.681548 -4.980960 17.580200 
-0.758834 -8.732320 15.226300 
-0.867006 -7.983480 14.792200 
-0.873988 -7.163540 14.557900 
-0.946068 -17.762199 11.523600 
-0.924334 -17.855200 9.582360 
-1.000820 -17.584999 12.477000 
-1.026140 -17.336599 13.194500 
-1.035020 -16.869600 13.737300 
-0.918480 -17.822300 7.358860 
-0.921490 -17.665199 5.442120 
-0.794652 -17.889200 4.677660 
-3.425200 6.844940 -17.047501 
-3.070560 1.817350 -17.266500 
-2.895580 -1.562710 -16.799400 
-2.534980 -4.584140 -15.835200 
-2.372220 -6.286320 -14.986500 
-2.176420 -9.370720 -13.685100 
-2.092920 -11.047600 -13.446000 
-1.888250 -12.971500 -13.681400 
-1.835360 19.771799 -1.449560 
-12.752300 2.921240 -3.203280 
-12.719900 2.857440 -4.347680 
-12.638500 4.079640 -4.616100 
-12.581100 3.651040 -5.708600 
-12.610100 4.561180 -3.268720 
-12.402200 3.165540 -0.668592 
-12.697700 2.598720 -2.179720 
-11.458900 -6.374740 -0.180203 
-11.474700 -6.386360 -0.734240 
-11.525300 -6.370860 -1.769530 
-10.737100 -8.286940 -0.504508 
-10.898000 -8.213400 -1.500980 
-11.429400 -6.328000 0.695386 
-10.912500 -8.338360 -0.020396 
-4.636380 4.627320 12.964500 
-5.913440 4.455720 12.870200 
-3.065060 4.340180 13.062200 
-7.425900 4.229060 12.370200 
-4.638160 3.684040 12.613000 
-5.802000 3.649720 12.579200 
-8.984220 -4.715400 10.460500 
-9.019020 -3.660140 10.740000 
-9.810680 -3.268140 9.853100 
-9.801500 -4.305360 9.480900 
-8.786280 -6.662300 9.725440 
-4.397960 -12.819600 12.717700 
-5.954820 -14.691400 11.013600 
-5.520600 -12.670800 11.732600 
-3.718960 -12.852700 13.181000 
-4.855700 -14.966800 12.270700 
-4.174000 -11.919500 12.955100 
-5.250120 -11.814500 11.985900 
-3.551660 -12.029600 13.395300 
-5.787480 -11.691500 11.539600 
-6.053140 -12.542700 11.228800 
-5.004880 -11.098600 12.145600 
-4.519740 -11.149400 12.617200 
-6.058680 -15.678900 10.546900 
-6.812260 -14.330900 9.800720 
-4.062180 -15.111700 13.012500 
-4.180960 -16.101900 12.804400 
-5.053200 -15.972900 11.915500 
-3.987340 -16.829000 12.484900 
-4.860520 -16.722900 11.559600 
-4.138080 -17.377899 10.951600 
-5.870100 -16.474600 10.041400 
-6.597700 -16.070499 8.768560 
-7.127580 -15.002500 8.645040 
-6.814920 -15.317000 9.290920 
-7.289960 -15.588400 7.529380 
-7.476740 -14.671800 7.989880 
-7.196060 -14.048300 9.165100 
-7.581020 -13.687500 8.472680 
-7.102940 -12.078000 10.086100 
-7.597840 -11.750300 9.382280 
-6.930000 -11.205400 10.489900 
-6.350580 -11.490400 11.051100 
-7.512580 -10.860700 9.796360 
-6.735960 -10.419600 10.847200 
-6.109000 -10.748200 11.359400 
-7.400280 -10.031200 10.176900 
-8.094400 -10.462600 9.034420 
-8.054480 -9.606480 9.423760 
-7.283220 -9.247660 10.534100 
-6.555420 -9.711400 11.164000 
-7.920840 -7.106920 10.605700 
-8.007020 -8.782660 9.797380 
-8.658140 -10.027500 8.199320 
-7.903480 -6.102840 11.010800 
-12.237900 -0.943892 0.185639 
-12.268600 1.642300 0.517562 
-11.997100 1.634280 2.442180 
-12.094600 -2.253660 0.396954 
-12.484700 -0.690800 -1.013560 
-12.396300 1.534670 -0.318996 
-12.670000 -0.716036 -1.725030 
-12.699800 0.019206 -2.003860 
-12.646400 1.104890 -1.608170 
-9.590400 9.048800 8.446300 
-10.327700 5.896900 8.089860 
-9.417440 6.844580 9.954640 
-10.620800 4.483680 7.726380 
-10.507700 6.520320 7.125720 
-10.327500 8.650840 6.611280 
-9.830800 10.093200 7.329820 
-10.408600 3.914060 8.614660 
-10.828400 4.887700 6.741580 
-11.309300 3.288860 5.530860 
-11.066100 5.148380 5.683220 
-11.932700 3.440300 2.343340 
-10.742500 6.980180 6.048300 
-10.840600 2.973800 7.536200 
-11.295200 7.560720 3.654540 
-10.836600 9.748460 4.006640 
-5.526780 -10.978700 11.771500 
-5.294240 -10.431800 11.920700 
-4.802380 -10.543500 12.177000 
-4.592620 -7.805340 12.886700 
-3.895780 -6.934860 13.135300 
-4.247480 -8.675640 13.205000 
-3.568200 -8.488560 13.864600 
-5.051720 -6.979340 12.678300 
-2.882600 -7.173540 13.734900 
-5.769760 -7.623760 12.258800 
-6.693220 -6.490640 11.859200 
-5.633340 -5.936320 12.543200 
-5.150600 -8.543240 12.546300 
-4.789920 -9.349820 12.699400 
-4.627260 -9.722120 12.762100 
-5.002700 -9.873980 12.242700 
-5.472980 -9.176180 12.190300 
-4.286180 -9.451240 13.350300 
-3.594320 -9.222540 14.227500 
-3.460000 -11.364300 13.783000 
-2.735080 -11.551100 14.210900 
-2.780120 -12.099900 13.675900 
-4.611520 -5.339940 12.962700 
-4.178540 -6.265420 12.924300 
-2.837320 -8.191000 14.304400 
-3.219220 -6.169260 13.434900 
-2.109300 -7.079780 14.348400 
-3.651980 -4.643120 13.378100 
-3.964920 -3.915500 13.488100 
-3.307420 -3.565680 13.753700 
-3.157120 -4.173740 13.670900 
-4.999500 -4.387280 13.019100 
-4.157300 -3.035200 13.280600 
-3.486280 -2.768000 13.562800 
-3.012940 -3.716640 13.931800 
-3.142540 -5.046740 13.630900 
-3.330080 -5.420440 13.348300 
-1.233930 -8.595520 15.220200 
-1.403900 -7.922940 14.800300 
-2.027760 -7.961220 14.702100 
-1.759960 -8.634640 15.133700 
-1.470440 -7.062440 14.518300 
-1.372040 -6.443260 14.615900 
-1.956970 -6.297540 14.440500 
-1.363600 -5.960220 14.865500 
-5.884040 -10.134000 11.629000 
-6.151880 -8.381380 11.837000 
-6.992000 -7.625020 11.332200 
-1.204330 -4.902660 15.186300 
-1.578560 -4.561820 15.374800 
-1.154310 -4.818500 15.550600 
-1.240020 -4.725820 15.703300 
-1.419320 -4.565340 15.716700 
-1.847650 -4.540240 15.487100 
-1.506190 -4.661280 15.853500 
-1.205020 -4.902860 15.889500 
-1.078410 -5.059380 15.670800 
-1.146010 -5.185460 15.183700 
-1.364660 -4.832720 14.970000 
-1.959870 -4.459460 15.000400 
-1.904300 -4.716040 14.735200 
-2.167500 -4.494760 14.760900 
-2.252200 -4.579960 14.598100 
-2.215400 -4.684640 14.510900 
-2.076740 -4.760260 14.552000 
-2.170480 -4.951980 14.522500 
-2.384660 -4.816960 14.493700 
-2.448460 -4.659520 14.621800 
-2.344240 -4.547480 14.842600 
-2.104220 -4.499500 15.132500 
-1.849560 -5.013040 14.719200 
-1.075370 -5.647800 15.835300 
-1.153690 -5.798560 15.266800 
-1.350450 -5.104360 14.900000 
-1.239350 -5.455720 16.098200 
-1.613980 -5.166040 16.056801 
-1.976990 -5.027120 15.630200 
-2.240300 -4.986020 15.239200 
-2.514660 -5.041360 14.912000 
-2.633120 -5.169640 14.651100 
-2.562900 -5.356640 14.491000 
-2.319880 -5.527500 14.499800 
-1.935050 -5.606000 14.735300 
-1.388030 -5.706600 14.934800 
-1.664860 -5.263460 16.192301 
-2.064080 -5.113820 15.728700 
-2.322520 -5.071520 15.330300 
-2.622000 -5.126180 14.968800 
-2.771720 -5.261220 14.646900 
-2.706100 -5.476760 14.413800 
-2.425340 -5.738240 14.340800 
-1.931430 -5.844300 14.652400 
-1.741730 -5.196240 16.461300 
-2.199800 -5.047580 15.927500 
-2.451440 -4.996240 15.518100 
-2.823540 -5.055140 15.060300 
-3.090040 -5.147540 14.612200 
-3.104520 -5.311580 14.222400 
-2.953940 -5.536340 13.967300 
-2.445620 -5.887980 14.218900 
-2.784200 -3.531500 15.062800 
-3.000060 -3.651680 14.488400 
-2.769000 -3.375520 14.338200 
-2.240920 -3.377080 15.653200 
-3.007940 -4.087140 15.214200 
-3.279400 -4.154620 14.608000 
-3.035560 -3.768900 14.057100 
-3.301320 -4.191780 14.169900 
-1.673410 -2.446860 15.392300 
-2.758080 -3.216080 14.169000 
-1.976220 -2.730620 15.054500 
-2.912500 -2.472240 13.884000 
-2.136020 -1.853980 14.478000 
-3.112560 -4.202920 13.798600 
-3.153340 -4.979120 13.775900 
-3.309740 -4.847220 14.141000 
-2.934880 -5.632320 13.847800 
-2.534540 -6.198560 14.045900 
-1.822470 -1.582000 14.762100 
-2.981020 -5.815520 13.652300 
-1.636390 -4.705040 17.104601 
-1.573410 -3.894760 17.092699 
-1.388080 -5.167760 17.040001 
-2.281800 -4.691360 16.163300 
-2.178500 -3.926780 16.130899 
-2.542600 -4.678680 15.751700 
-2.445420 -3.974480 15.778400 
-3.023160 -4.787220 15.207600 
-3.302260 -4.811920 14.610800 
-1.979250 -3.284100 15.958500 
-1.893560 -0.635046 14.145600 
-2.199660 -0.895910 13.917700 
-1.950860 0.432696 13.444600 
-2.274720 0.199767 13.214400 
-2.034600 1.340440 12.580100 
-5.250040 -3.402620 12.897400 
-4.271460 -1.999640 13.005200 
-9.299080 5.372880 10.597000 
-10.142800 3.251180 9.375040 
-8.777880 5.961660 11.237300 
-4.541380 3.235720 12.096900 
-3.477740 3.021320 11.971800 
-7.168080 3.464320 12.162700 
-8.158880 3.272780 11.661500 
-6.836100 3.140340 11.865600 
-7.821800 2.876840 11.440100 
-8.541680 4.057740 11.714000 
-5.514480 3.241660 12.097600 
-4.639940 6.802500 12.824800 
-4.666420 9.014740 12.326600 
-5.867040 6.621080 12.563200 
-5.804820 8.813540 11.985100 
-7.452940 6.251240 11.995700 
-7.428620 8.359220 11.351000 
-8.826580 7.668720 10.616100 
-5.534360 2.465780 12.086300 
-6.571560 2.476180 11.926200 
-6.640920 2.515660 12.156400 
-5.553760 2.501420 12.320900 
-5.533820 2.482500 11.990900 
-6.553280 2.483320 11.833400 
-7.380160 2.251420 11.528100 
-7.488500 2.248980 11.714800 
-6.693400 2.758520 12.062700 
-5.554560 2.792720 12.243900 
-4.915260 2.360600 11.969800 
-4.918520 2.383840 12.182100 
-5.410500 0.900458 11.913900 
-5.456480 0.832146 12.105900 
-6.445300 0.812952 12.085900 
-6.372240 0.889650 11.922300 
-4.319680 1.136250 11.550600 
-4.322700 1.077930 11.726600 
-5.388180 0.478040 12.001500 
-6.485620 0.397432 11.958400 
-7.588780 1.026790 11.352700 
-7.676120 0.974148 11.478800 
-6.332360 0.889046 11.843300 
-5.374360 0.908874 11.816300 
-7.793080 1.970680 11.168400 
-7.876460 1.952940 11.341700 
-7.619620 2.466260 11.633500 
-7.367740 2.270560 11.448100 
-8.220240 1.348060 10.463800 
-8.008940 1.210380 10.885900 
-8.076000 1.155010 11.004700 
-8.274120 1.338490 10.634900 
-8.254540 1.342860 10.384900 
-8.031600 1.202710 10.803700 
-8.581800 0.984630 10.562900 
-8.267880 0.791802 10.953600 
-7.598380 1.025870 11.269000 
-7.773820 0.574878 11.371500 
-4.295080 1.130670 11.471900 
-3.675400 1.258700 11.305100 
-3.671720 1.217420 11.470800 
-4.245060 0.727178 11.696200 
-3.635060 1.266900 11.229900 
-3.428880 1.535980 11.196500 
-3.370920 1.516890 11.343700 
-3.184300 1.151760 11.395600 
-3.388680 1.538090 11.129800 
-3.644460 1.798500 11.290000 
-3.625040 1.827700 11.450700 
-3.609700 1.812770 11.224100 
-4.538060 2.246120 11.812200 
-4.533220 2.268080 12.012800 
-3.465660 2.084140 11.410000 
-3.077280 1.752920 11.329100 
-4.494000 2.257780 11.717900 
-4.449360 2.523120 11.911500 
-4.884300 2.379860 11.873700 
-4.869720 2.655040 12.076200 
-7.811480 1.992110 11.086800 
-8.013220 2.158160 11.246700 
-8.363940 1.531620 10.581800 
-3.021980 0.728036 11.701800 
-4.146080 0.275348 11.716200 
-2.996400 0.249916 12.260300 
-4.128500 -0.241712 12.103200 
-5.344200 0.038591 11.902100 
-8.455720 0.305846 10.829100 
-8.910160 0.597642 10.419900 
-9.387440 0.145276 10.246100 
-8.803880 -0.283042 10.760100 
-7.869480 0.052460 11.239100 
-5.417580 -0.552470 12.100400 
-6.552920 -0.105608 11.836500 
-6.699300 -0.776806 11.949300 
-8.170780 -0.608636 11.244100 
-2.927200 2.070040 11.472900 
-3.363800 2.293540 11.289900 
-3.448900 2.493480 11.278800 
-4.388840 2.745420 11.676200 
-4.378260 2.862000 11.586100 
-4.846080 2.895380 11.836100 
-5.583520 3.026360 12.014700 
-4.853280 3.012240 11.743800 
-5.605040 3.135400 11.928800 
-6.727540 2.971720 11.828100 
-6.742620 3.061760 11.735900 
-7.690600 2.695820 11.425900 
-7.696880 2.789160 11.343100 
-8.104380 2.381800 11.041200 
-8.141100 2.491140 10.947300 
-8.481120 1.697570 10.459800 
-8.544200 1.807540 10.389600 
-8.761920 1.505920 10.369600 
-8.471180 1.428930 10.519100 
-9.194320 1.169310 10.145400 
-4.844480 3.074000 11.845200 
-4.332340 2.967260 11.740300 
-3.524240 2.710440 11.540100 
-8.707080 1.907440 10.387300 
-9.165980 2.239040 10.297900 
-9.273260 1.639080 10.144000 
-8.290900 2.599320 11.006700 
-2.540060 2.314820 11.966100 
-8.623840 3.056220 11.158100 
-9.801540 1.017960 9.745220 
-9.137460 -0.850112 10.611800 
-9.705720 -0.382146 10.034500 
-2.396320 1.100650 12.200800 
-2.988100 -0.314300 12.808100 
-4.149520 -0.795120 12.497400 
-5.386880 -1.113020 12.316500 
-6.552640 -1.344840 12.094600 
-8.493520 -1.197390 11.154500 
-10.402200 0.897388 8.984360 
-9.954480 1.802880 9.766840 
-6.237080 16.099501 -11.334600 
-6.424220 17.541500 -8.290320 
-8.446800 16.061899 -7.946020 
-8.367420 14.716500 -10.939400 
-4.916040 16.550100 -11.515900 
-5.069540 18.047300 -8.414900 
-8.441600 16.674700 -5.072120 
-6.444500 18.238899 -5.317460 
-10.018400 14.364600 -7.532780 
-9.833200 13.117500 -10.301400 
-4.872200 18.781401 0.076435 
-4.832940 18.001499 3.683300 
-6.358000 17.333500 3.640140 
-6.407920 18.078600 0.087625 
-8.183340 15.886800 3.372280 
-8.294160 16.532801 -0.040103 
-6.412820 18.250700 -1.308940 
-4.891220 18.953899 -1.330320 
-11.089000 10.129500 2.648300 
-11.579300 7.693900 2.426520 
-10.234400 11.792800 4.427040 
-11.807100 5.428500 2.319340 
-12.132800 7.661000 -0.130079 
-11.592000 10.500900 -0.115749 
-12.256500 3.314200 0.253512 
-8.396560 -9.789020 -10.715200 
-8.171180 -11.437000 -10.704100 
-7.047900 -11.344000 -11.672600 
-7.228580 -9.683000 -11.781600 
-9.461200 -10.078000 -8.919740 
-9.221300 -11.783100 -8.952640 
-8.036740 -13.335100 -11.003800 
-6.929540 -13.207500 -12.022000 
-5.205980 -11.252700 -12.708600 
-5.261800 -9.564080 -12.912100 
-8.890220 -6.511180 -11.510400 
-7.605340 -6.356460 -12.873200 
-9.349200 -12.352400 -6.953720 
-9.131920 -14.428800 -7.001720 
-9.696580 -10.506700 -7.131120 
-9.614460 -12.793000 -5.156360 
-9.218100 -14.877000 -5.157160 
-9.024520 -13.754300 -9.187220 
-10.159200 -10.873600 -5.286360 
-5.431760 -16.263000 4.756180 
-4.477880 -17.007900 3.592760 
-5.225960 -16.451599 2.865260 
-6.041240 -15.419900 3.693720 
-4.691600 -16.913200 6.009760 
-4.682680 -17.389200 2.145260 
-4.049340 -17.696899 2.723220 
-5.965160 -15.893000 2.048200 
-7.336100 -14.925700 4.529500 
-6.813240 -15.658000 5.677000 
-1.790510 -17.353100 13.090300 
-1.884800 -16.915701 13.614300 
-1.770860 -17.585800 12.411300 
-2.799160 -17.314400 12.823300 
-2.917580 -16.951200 13.308500 
-2.031820 -16.202299 13.972400 
-1.721280 -12.134400 13.771800 
-1.878820 -12.738500 13.605000 
-2.920860 -12.779200 13.526500 
-1.658360 -11.675400 14.483200 
-9.676520 -2.303480 10.174400 
-10.288000 -1.783660 9.387180 
-8.933720 -2.682360 10.933700 
-10.457000 -2.726220 8.931440 
-10.966900 -0.493478 8.091540 
-10.318400 2.139360 9.136400 
-5.380200 -2.440020 12.708500 
-6.465740 -2.744340 12.379300 
-3.076340 -1.471080 13.411800 
-9.782520 2.676540 9.986560 
-10.706200 1.417450 8.333300 
-10.594000 2.623100 8.402660 
-9.074920 3.786000 11.107700 
-7.546500 10.681900 10.335300 
-5.869060 11.375100 10.977400 
-4.749160 11.608300 11.279000 
-6.334280 -3.713560 12.496200 
-6.063800 -4.801480 12.552200 
-9.538820 -6.207760 8.732720 
-10.466600 -3.764940 8.453300 
-3.077100 -16.238701 13.642200 
-2.752040 -17.518200 12.221500 
-3.117380 -15.282300 13.745700 
-2.084420 -15.260600 14.035900 
-11.222000 -1.203390 7.282140 
-11.478500 1.478300 5.558500 
-11.387600 -2.102040 6.197780 
-10.990000 -4.857740 5.664080 
-10.154300 -5.740940 7.701360 
-8.873100 9.937400 9.373800 
-4.821720 13.782700 10.017300 
-6.118920 13.371000 9.702760 
-7.848640 12.432900 9.025760 
-9.192480 11.339700 8.185900 
-2.745660 -8.913620 14.783800 
-8.623340 -10.925100 7.788480 
-2.702800 -17.615999 11.235300 
-1.741250 -17.707800 11.417200 
-2.624580 -17.649700 9.440380 
-4.255140 -17.444099 9.402120 
-2.559520 -17.604401 7.653200 
-8.444660 -12.827700 6.949660 
-8.275860 -13.856700 6.593980 
-8.692400 -8.325020 8.958620 
-9.310780 -7.876260 8.041180 
-9.185540 -9.569660 7.299960 
-9.118120 -10.448400 6.890840 
-8.913200 -12.276700 6.043080 
-8.014220 -14.898000 6.350840 
-8.772520 -13.233700 5.638340 
-9.244600 -12.512300 4.636080 
-9.365020 -11.662500 5.086700 
-8.579720 -14.170900 5.267600 
-9.578480 -9.941580 5.954560 
-9.661780 -9.098280 6.369160 
-9.840780 -7.445920 7.090820 
-10.597100 -6.720200 5.291720 
-10.448300 -8.072240 4.583000 
-11.047800 -8.345660 0.842732 
-10.378800 -10.702100 1.627890 
-9.640560 -11.781000 3.708760 
-9.098700 -13.297900 4.152980 
-9.469600 -12.420500 3.205000 
-12.376600 -2.008000 -0.707184 
-12.211900 5.237900 -0.018820 
-12.357000 5.125420 -1.030830 
-12.276100 7.556000 -1.276470 
-9.782620 -10.964600 0.815894 
-9.036860 -11.369200 0.161037 
-8.472200 -13.020300 2.440920 
-7.897840 -14.048400 3.400940 
-6.195860 -16.313999 6.905620 
-5.598540 -16.839800 8.252040 
-5.100740 -17.151600 9.599860 
-11.593400 -5.435460 -5.935460 
-11.083900 -7.412620 -5.598000 
-10.539300 -7.138300 -7.560400 
-11.016400 -5.229080 -7.830600 
-11.832900 -5.467540 -4.370620 
-11.238900 -7.556140 -4.035300 
-10.115200 -6.850980 -9.263120 
-10.435100 -4.996800 -9.733080 
-12.049900 -2.780340 -6.448900 
-11.570300 -2.460360 -8.375160 
-10.291800 -11.058700 -3.579080 
-9.664260 -13.098200 -3.406980 
-9.150500 -15.190800 -3.365560 
-11.695800 -6.038140 -2.828720 
-11.193600 -7.902040 -2.600200 
-12.085900 -3.839260 -5.517280 
-10.132400 -11.379500 -2.184720 
-9.341000 -13.545100 -2.036520 
-9.616840 -11.627900 -1.153240 
-8.815020 -13.762800 -1.163030 
-8.692020 -15.545100 -1.905040 
-8.020820 -13.815000 -0.329664 
-8.204420 -15.647300 -1.210820 
-2.375360 -17.475800 5.631760 
-4.487420 -17.267401 7.862380 
-2.273280 -17.613800 4.524140 
-2.154840 -18.222200 3.803860 
-3.570020 -17.331800 4.252400 
-3.081820 -18.052401 3.397200 
-4.697680 6.707180 -16.697300 
-4.315920 1.898040 -16.881399 
-4.094320 -1.532930 -16.517401 
-3.714060 -4.605980 -15.556500 
-3.492700 -6.276400 -14.783400 
-3.149240 -9.460720 -13.538400 
-3.100260 -11.144200 -13.304900 
-3.018260 -13.029700 -13.540800 
-6.626960 6.386420 -15.833100 
-6.259700 1.867920 -16.076401 
-6.102240 -1.438250 -15.747400 
-5.858920 -4.565840 -14.809300 
-5.617660 -6.245820 -14.135500 
-5.184040 -13.115700 -12.946000 
-8.401640 5.887260 -14.713500 
-8.130420 1.557160 -14.790200 
-7.925880 -1.550310 -14.475800 
-7.778200 -4.589840 -13.522200 
-9.597780 5.368500 -13.548800 
-9.371420 1.371560 -13.553100 
-9.235320 -1.710960 -13.097600 
-9.060140 -4.695520 -12.137700 
-11.119500 4.284500 -11.318200 
-10.969800 0.831812 -11.205800 
-10.809400 -2.124000 -10.630500 
-11.988000 2.913320 -8.873320 
-11.752200 0.299670 -8.925680 
-12.459800 1.801430 -6.558900 
-12.335200 0.836918 -6.723100 
-12.211900 -0.199955 -6.798560 
-12.121400 -1.421800 -6.774300 
-6.477040 -15.050000 1.249730 
-7.299860 -13.530700 1.786740 
-7.412920 -15.825100 -0.500160 
-12.521500 6.006940 -7.131220 
-12.596700 6.604180 -5.489400 
-11.893300 8.753480 -8.530800 
-12.051400 9.526500 -6.358100 
-12.451300 7.148380 -3.699140 
-11.948200 10.139400 -4.183380 
-5.351680 -17.036400 1.524720 
-6.002120 -16.522400 0.856890 
-6.714580 -14.540300 2.630860 
-9.512980 13.555400 4.859200 
-8.147980 15.084200 5.300660 
-6.326680 16.428699 5.696240 
-4.848080 17.024799 5.840340 
-10.369400 12.479500 2.871720 
-9.596300 14.282600 3.071000 
-10.576100 13.426600 -0.177715 
-9.740680 14.952900 -0.151760 
-5.014640 18.809299 -5.406760 
-8.343400 16.687901 -1.390270 
-9.824320 15.065400 -1.466540 
-9.974400 14.957200 -4.883580 
-10.671800 13.495800 -1.467290 
-10.847800 13.305200 -4.617900 
-10.905100 12.675700 -7.086160 
-10.738400 11.541600 -9.668380 
-11.718100 10.471700 -1.366740 
-12.500500 -1.371790 -5.872340 
-12.423100 -2.331400 -5.670880 
-12.653600 -0.360242 -5.818640 
-12.248300 -3.800020 -4.502420 
-12.115400 -4.616000 -3.630980 
-11.990900 -5.256420 -2.870440 
-11.971700 -5.621660 -2.547920 
-12.846200 0.518054 -5.626300 
-12.994900 1.377300 -5.271420 
-13.020600 1.853520 -4.717100 
-12.383700 -3.145300 -4.985140 
-12.755000 -0.127771 -2.186200 
-13.509100 -0.155078 -4.868240 
-13.428600 -0.924220 -5.156700 
-13.893100 -0.622634 -5.129840 
-13.955000 0.032602 -4.735760 
-13.344200 0.393228 -4.437980 
-13.249000 -0.375216 -4.701360 
-13.799600 -1.014460 -5.318880 
-14.231500 -0.368828 -5.121240 
-14.293900 0.448602 -4.716080 
-13.655700 0.843656 -4.246340 
-13.285900 0.146389 -3.996580 
-13.341600 0.939782 -3.823560 
-13.161400 -1.017200 -4.523440 
-13.206600 -1.492300 -5.085040 
-12.623500 -1.456120 -2.711760 
-12.710400 -1.166450 -2.799320 
-12.992500 -1.111870 -2.381620 
-12.993200 -1.365970 -2.532000 
-12.410500 -1.662520 -3.106740 
-12.660100 -1.403190 -3.431140 
-12.994200 -0.787942 -2.870520 
-13.129900 -1.784150 -2.624020 
-13.307600 -1.675440 -2.457980 
-12.589900 -1.973970 -2.747840 
-13.112000 -3.496340 -2.359480 
-13.188800 -3.929180 -2.218740 
-13.282400 -4.367080 -2.517100 
-13.334900 -3.661540 -2.543760 
-13.062500 -3.264900 -2.259320 
-13.126400 -3.529100 -2.047180 
-13.079700 -4.661860 -2.084280 
-13.169500 -5.277740 -2.434840 
-13.445700 -4.565120 -2.959320 
-13.510500 -3.703680 -2.832420 
-13.060100 -3.300060 -2.835680 
-12.850100 -3.302500 -2.754880 
-13.220000 -3.227560 -2.982080 
-12.493600 -3.026340 -3.375160 
-12.724400 -3.143320 -3.356580 
-12.667400 -3.220920 -2.720700 
-12.901000 -3.241080 -2.378640 
-13.864900 -0.393516 -7.020180 
-13.658200 -1.845530 -6.714160 
-13.609600 -1.673850 -6.133540 
-13.801300 -0.387196 -6.380420 
-14.080500 -0.432874 -7.389780 
-13.869200 -1.978400 -7.057820 
-13.445100 -3.056720 -6.255600 
-13.421900 -2.714880 -5.715940 
-13.403900 -1.546800 -5.804580 
-13.592400 -0.392182 -5.925920 
-13.998200 0.945102 -6.959500 
-13.940500 0.798400 -6.337400 
-13.596500 1.506040 -3.640060 
-13.851700 1.944870 -3.148300 
-13.579700 1.213400 -3.232180 
-13.929100 1.793510 -3.592140 
-14.392600 1.758700 -2.980140 
-14.113600 1.122110 -3.051300 
-13.460300 0.364006 -3.521220 
-14.043600 1.204350 -4.128940 
-14.279700 1.646070 -4.228180 
-14.166200 2.171340 -3.789200 
-12.738700 -2.516540 -2.642480 
-12.373200 -2.754520 -3.129340 
-12.319500 -2.450660 -3.366580 
-12.498900 -3.033000 -2.826040 
-12.454800 -2.801080 -3.776820 
-12.411000 -2.108820 -3.779980 
-13.171600 -2.391380 -2.533340 
-13.319800 -2.338720 -2.278940 
-13.615800 -1.691430 -5.330480 
-13.067100 -1.773250 -4.972020 
-13.446300 -2.101220 -5.215240 
-12.969600 -1.397090 -4.373080 
-12.846000 -2.144760 -4.691080 
-13.258300 -2.509200 -4.849000 
-13.780700 -2.308680 -5.248140 
-13.937200 -1.909840 -5.394000 
-12.679600 -1.754210 -4.156900 
-12.613500 -2.501740 -4.236500 
-13.060100 -2.782240 -4.166740 
-13.601800 -2.678820 -4.809200 
-14.281100 -2.029100 -5.672520 
-14.088900 -2.578180 -5.397860 
-14.297200 -0.878444 -5.494140 
-14.565800 -0.791884 -5.914720 
-13.899600 -2.981080 -4.877700 
-14.095500 -3.032540 -6.004300 
-14.354800 -2.081740 -6.458800 
-13.935700 -3.558200 -5.256080 
-13.889200 -3.213860 -3.999880 
-13.590400 -2.831420 -3.925520 
-12.780200 -3.042580 -3.627780 
-13.862500 -3.870000 -4.396780 
-13.679700 -3.565640 -3.211040 
-13.375400 -3.101860 -3.232480 
-13.681900 -4.324340 -3.505700 
-12.864200 -0.425378 -2.448360 
-12.796700 -0.854702 -1.990350 
-13.434600 -0.211430 -2.845560 
-13.098500 0.087913 -2.498660 
-12.962000 -1.118010 -3.711520 
-13.260400 -0.633484 -3.907520 
-13.481300 -0.393902 -3.259440 
-13.457000 -0.238248 -3.601660 
-13.785000 0.361848 -3.299460 
-13.946100 1.928080 -6.020360 
-13.984100 2.226980 -6.578320 
-13.712000 0.650802 -5.866620 
-13.755700 1.599290 -5.561900 
-13.909400 2.959600 -5.962560 
-13.864700 2.540740 -5.514360 
-14.260100 2.382740 -6.828400 
-14.237300 1.007890 -7.275820 
-13.671600 2.866260 -4.748660 
-13.722500 3.361540 -4.969100 
-13.629000 2.156160 -5.159140 
-13.471200 2.451640 -4.647740 
-13.532700 2.896620 -4.046720 
-13.615800 3.368420 -4.032160 
-14.000700 3.669520 -5.053080 
-14.181600 3.192580 -6.157220 
-13.332800 2.551340 -4.048120 
-13.520000 3.040380 -3.381920 
-13.463900 2.711400 -3.551280 
-13.904500 3.616420 -3.894520 
-13.769200 3.183180 -3.136780 
-13.265100 2.482480 -3.671140 
-13.270700 2.366220 -3.041800 
-13.340500 2.508880 -2.847740 
-12.896900 0.392734 -2.285480 
-13.121200 1.242610 -2.373820 
-13.446400 0.818712 -2.426540 
-12.816900 0.538922 -2.176720 
-12.788700 -5.046980 -1.839250 
-12.864100 -3.573840 -1.721120 
-14.203400 2.684660 -3.409900 
-13.355500 -5.487960 -3.049680 
-12.875700 -5.787800 -2.287640 
-13.108100 -5.998020 -3.131620 
-13.666600 -5.082480 -3.792060 
-12.397500 -5.934720 -2.240560 
-12.683000 -6.146900 -3.195640 
-13.538900 -5.511820 -3.984420 
-12.470300 -3.801320 -1.474300 
-12.367900 -5.153700 -1.707570 
-12.192500 -5.169400 -1.677350 
-12.395400 -5.949060 -3.194160 
-12.141500 -5.843960 -2.256920 
-13.203300 -5.683920 -4.151080 
-14.495000 1.736280 -2.857760 
-14.257800 1.076020 -2.870000 
-14.643900 2.616060 -3.242660 
-14.326600 3.104340 -4.012300 
-14.777000 3.132500 -3.801280 
-14.727300 2.642880 -3.148340 
-13.975700 2.273540 -2.483240 
-13.757700 1.602030 -2.356480 
-14.153800 1.248880 -2.588380 
-14.389600 1.900110 -2.642820 
-13.555300 2.531900 -2.608700 
-13.366000 1.917030 -2.400440 
-13.865400 0.530966 -2.703080 
-14.614000 2.804700 -3.020060 
-14.200600 3.075180 -2.966220 
-13.198500 1.972260 -2.549580 
-13.946000 0.328828 -3.060260 
-13.065800 -2.222580 -1.944180 
-12.733100 -2.139280 -1.579640 
-14.216200 -3.258480 -6.248900 
-14.607500 -2.135040 -6.715580 
-14.675000 -0.589504 -6.719440 
-14.036600 -3.981780 -5.501360 
-14.332600 -3.446060 -6.410820 
-14.728400 -2.193040 -6.874260 
-14.994200 -0.599572 -6.947540 
-14.325700 -3.532700 -6.555320 
-14.690800 -2.217240 -7.054540 
-15.081500 -0.608504 -7.082280 
-14.115800 -4.293560 -5.678820 
-14.095500 -4.426480 -5.779060 
-14.062200 -3.495300 -6.647960 
-14.345700 -2.132640 -7.209240 
-15.011900 -0.582542 -7.285180 
-13.833100 -4.478140 -5.869020 
-13.652100 -3.296480 -6.540960 
-14.610500 -0.506176 -7.502440 
-13.440200 -4.302260 -5.799980 
-13.246900 -3.991340 -5.563300 
-13.171800 -3.574340 -5.175420 
-13.241900 -2.520820 -5.479360 
-13.001700 -3.386380 -5.013020 
-12.837900 -2.384660 -5.522720 
-12.984100 -1.445440 -5.774040 
-12.639000 -3.238920 -4.982480 
-13.180700 -0.390772 -5.790180 
-14.028400 -0.938444 -5.355060 
-13.916200 -4.436920 -4.732280 
-13.903600 -4.782960 -5.027080 
-13.611900 -5.009580 -5.148440 
-13.262100 -4.868240 -5.126520 
-13.067100 -4.545300 -4.898900 
-12.961200 -4.156160 -4.605640 
-12.791700 -4.003200 -4.472340 
-12.443100 -3.862800 -4.403120 
-12.863500 -5.519400 -4.128620 
-12.739700 -5.195820 -3.951320 
-12.679200 -4.845640 -3.706640 
-12.487200 -4.674740 -3.601940 
-12.269200 -4.542420 -3.551480 
-12.321300 -5.579280 -3.117480 
-12.368400 -5.242680 -2.979480 
-12.224600 -5.205480 -2.842300 
-12.100900 -5.139300 -2.872280 
-12.061000 -5.626460 -2.336320 
-12.979200 1.286170 -2.413280 
-13.087200 1.968740 -2.662380 
-14.181000 2.612180 -4.145080 
-14.869800 3.201060 -3.725280 
-14.769700 3.395460 -3.682040 
-14.356800 3.615400 -3.748220 
-14.423200 1.137430 -4.790900 
-14.358000 2.374080 -4.615200 
-14.592200 1.859740 -5.182840 
-14.560400 3.059380 -4.814380 
-14.977700 3.205580 -4.690920 
-15.053200 3.298800 -4.676120 
-14.926700 3.522720 -4.761300 
-14.509200 3.711220 -4.940860 
-14.757400 2.574400 -5.726680 
-15.167600 2.781100 -5.655940 
-15.250400 2.866300 -5.677120 
-15.129800 3.057220 -5.842540 
-14.695700 3.230360 -6.082040 
-14.798300 1.864460 -6.272160 
-15.201400 2.022140 -6.287480 
-14.538900 0.697418 -5.045620 
-14.719600 1.257330 -5.543440 
-15.298200 2.080240 -6.341200 
-15.212500 2.217680 -6.543360 
-14.794800 2.373740 -6.816960 
-14.536900 -0.107634 -5.314780 
-14.713800 0.277860 -5.841040 
-14.771200 0.693272 -6.640600 
-15.117600 0.762140 -6.781120 
-15.213600 0.789306 -6.874400 
-15.160800 0.871336 -7.074160 
-14.765700 0.982590 -7.337400 
-13.037400 2.242740 -3.361000 
-13.042300 2.040680 -2.833540 
-13.169800 2.249460 -3.185500 
-13.146500 2.308120 -3.939820 
-13.338200 2.046260 -4.724160 
-13.449100 1.459480 -5.253940 
-13.361700 0.559268 -5.626140 
-12.021200 -5.313360 -1.578250 
-11.908900 -5.779320 -1.964200 
-13.005400 2.252300 -4.036200 
-12.588700 -1.936040 -1.297310 
-12.947800 1.875780 -2.454120 
-12.780500 0.739586 -2.024260 
-12.621700 -0.705002 -1.533880 
-3.378080 3.454580 12.555800 
-2.205020 2.534460 12.442000 
-1.741310 1.547250 12.935200 
-1.657530 0.642592 13.666000 
-1.978620 0.885708 13.013100 
-2.325340 0.656888 12.715500 
-1.689260 1.093270 13.297900 
-1.568960 -4.500460 15.575600 
-1.685520 -4.581660 15.693200 
-1.804450 -5.078620 15.867300 
-1.881890 -5.165420 15.981700 
-2.012740 -5.094820 16.186501 
-2.104260 -4.719140 16.436300 
-1.986250 -3.902540 16.429501 
-1.780760 -3.180780 16.251801 
-1.552470 -1.360400 15.007900 
-1.445110 -2.274420 15.636300 
-1.604180 -0.372686 14.373600 
-1.037750 -2.143280 16.224501 
-1.280800 -3.044180 16.876301 
-1.065450 -1.122950 15.535400 
-1.071920 0.019839 14.811500 
-1.061530 1.053540 14.114400 
-1.114010 1.940570 13.474000 
-1.834120 4.449240 13.361200 
-1.391780 2.890940 13.114500 
-2.333360 19.531200 -0.036567 
-2.393480 19.688000 -1.424810 
-2.452040 19.411301 -5.526820 
-2.566280 18.628401 -8.580020 
-2.516820 17.158501 -11.669800 
-1.967610 6.912420 13.241300 
-1.629000 6.987860 -17.363800 
-1.393900 1.706400 -17.574699 
-1.306320 -1.610990 -17.036400 
-1.083340 -4.563260 -16.069599 
-1.007180 -6.299260 -15.157800 
-0.952666 -9.261120 -13.789400 
-0.801310 -10.952000 -13.551000 
-2.202840 11.972700 11.535400 
-2.044480 9.260380 12.694300 
-2.263740 18.749500 3.631360 
-2.283240 14.260100 10.327400 
-2.286200 17.688801 5.929120 
-1.077250 1.499140 13.789200 
-0.518974 -3.026320 17.261101 
-0.759988 4.492100 13.415800 
-0.632272 3.009120 13.289600 
-0.439554 2.116600 13.616200 
-0.432880 1.311740 14.290400 
-0.783548 6.889440 13.253800 
-0.722000 9.225280 12.711600 
-0.809262 11.988000 11.635600 
-0.687390 7.014400 -17.449900 
-0.584026 1.654260 -17.618299 
-0.548960 -1.644200 -17.087000 
-0.459728 -4.569460 -16.122101 
-0.429276 -6.315660 -15.203700 
-0.407664 -9.221080 -13.799900 
-0.348200 -10.930100 -13.558200 
-0.877378 14.314400 10.432300 
-0.899992 17.829100 5.962200 
-0.894412 18.926100 3.601960 
-0.935778 19.686800 -0.096097 
-0.971348 19.816601 -1.478800 
-0.974596 19.532801 -5.560140 
-1.031080 18.760500 -8.639640 
-1.020180 17.287600 -11.724300 
-0.442672 0.206234 15.047400 
-0.448708 -1.056650 15.853800 
-0.448734 -2.131880 16.627600 
-0.430910 1.718780 13.943100 
-3.512260 0.506542 11.668900 
-3.493240 0.009350 12.161000 
-3.505140 -0.552300 12.648000 
-3.627420 -1.726170 13.206600 
-3.595980 0.949244 11.489200 
-2.260400 1.831190 12.228800 
-2.603060 1.576650 11.804300 
-1.933220 2.037080 12.635300 
-1.207370 2.384800 13.231200 
-0.546590 2.523900 13.402600 
-2.354920 -2.946600 14.627000 
-2.506340 -2.160480 14.183300 
-2.700060 0.911478 11.925400 
-2.618260 -0.057492 13.006000 
-2.620980 -1.184100 13.662800 
-2.650680 0.453246 12.473100 
-2.876360 1.344940 11.529300 
-1.795850 -2.883660 15.704400 
-1.584540 -2.744360 15.971700 
-1.128350 -2.608400 16.577900 
-0.465788 -2.593900 16.961399 
-2.074560 -3.076740 15.381200 
-2.525480 -3.246360 14.857200 
-0.905534 -6.317740 14.977200 
-1.354910 -6.128840 14.765700 
-1.932950 -5.973480 14.575100 
-0.720032 -5.923880 15.892600 
-0.773642 -6.149800 15.276300 
-3.652880 -7.823340 13.464800 
-1.725680 -17.756300 9.516220 
-1.707650 -17.717899 7.507840 
-1.649660 -17.573500 5.530580 
-1.618910 -17.753099 4.608980 
-1.436800 -18.271200 3.895900 
-3.591480 -17.467800 11.079800 
-3.551320 -17.544300 9.397900 
-3.586040 -17.445700 7.742480 
-3.355160 -17.283600 5.749020 
-2.938120 -17.480301 4.389520 
-2.623840 -18.146500 3.634120 
-3.733820 -17.302200 11.712500 
-4.411140 -17.187000 11.175900 
-3.849560 -17.132999 12.115400 
-4.636520 -16.994301 11.355500 
-12.536300 4.732180 -2.462540 
-12.374500 7.328180 -2.756200 
-11.855600 10.309000 -3.059840 
-10.778100 13.425200 -3.384820 
-9.914620 15.044100 -3.550560 
-8.401040 16.728001 -3.636520 
-6.428220 18.301399 -3.726220 
-4.960460 18.925800 -3.756640 
-2.420520 19.576599 -3.806160 
-0.969146 19.700800 -3.818500 
-12.451900 4.928660 -1.772450 
-12.556100 2.863680 -1.448970 
-11.446500 -6.359460 0.245968 
-12.537700 1.267410 -1.019870 
-12.368000 -0.749760 -0.473048 
-12.240900 -2.066200 -0.182037 
-10.997000 -8.354700 0.389808 
-10.136000 -10.828300 1.209300 
-9.046940 -12.728000 2.836980 
-8.570740 -13.695600 3.800300 
-8.033220 -14.578400 4.932840 
-7.488580 -15.304800 6.061800 
-6.823080 -15.965400 7.241720 
-6.157160 -16.468599 8.502360 
-5.527920 -16.841499 9.798300 
-12.329100 7.443240 -2.037260 
-4.923160 18.954201 -2.534320 
-11.788000 10.396000 -2.229360 
-10.726400 13.469100 -2.437920 
-9.871360 15.064500 -2.515200 
-8.372620 16.718100 -2.516260 
-6.419400 18.286800 -2.511840 
-2.409380 19.646200 -2.599120 
-0.972730 19.770800 -2.630200 
-8.749800 1.169770 10.427500 
-9.078380 0.865996 10.253000 
-9.618000 0.548118 9.962240 
-10.068400 0.148394 9.546400 
-10.707600 -1.187650 8.680960 
-10.917000 -2.065960 8.066920 
-10.971400 -3.088320 7.410540 
-10.631500 -5.284500 6.682600 
-10.270800 -7.051580 6.159440 
-10.080200 -8.610960 5.450380 
-9.778580 -11.026900 4.134100 
-7.470920 -7.566180 -12.392500 
-8.711200 -7.705520 -11.134900 
-10.828600 -9.239600 1.030990 
-10.545200 -9.307500 0.182766 
-10.190900 -9.316840 -0.328572 
-10.770100 -8.630700 -5.475500 
-10.219000 -8.332380 -7.405380 
-10.926200 -8.757380 -3.857260 
-9.858480 -8.011940 -9.084540 
-10.876600 -9.035780 -2.437560 
-10.487900 -9.340920 -1.348870 
-2.290200 -7.380820 -14.430100 
-3.335920 -7.411220 -14.254700 
-5.457000 -7.437440 -13.609700 
-0.993444 -7.337920 -14.569700 
-0.423848 -7.323340 -14.600000 
-10.717800 -9.283940 0.588194 
-9.997560 -9.405180 5.013680 
-10.381500 -8.819500 4.088360 
-4.979540 -12.758000 12.225400 
-4.728160 -11.884400 12.451400 
-0.931016 -17.820801 10.562800 
-5.447520 -14.831700 11.625600 
-5.589660 -15.827900 11.209300 
-5.398000 -16.603901 10.778400 
-2.662680 -17.639099 10.326000 
-4.194480 -17.412901 10.231700 
-1.731800 -17.740299 10.464700 
-3.560660 -17.520399 10.251300 
-4.780660 -17.169201 10.398000 
-5.111440 -16.917900 10.568800 
-0.924642 -17.724400 6.373560 
-6.941540 -15.834400 8.143260 
-5.897620 -16.583900 7.578480 
-2.470820 -17.532700 6.659360 
-4.638180 -17.075100 7.028380 
-1.678440 -17.632700 6.514100 
-3.497320 -17.349800 6.787900 
-6.489440 -16.223499 7.865980 
-6.579080 -12.349600 10.685300 
-0.920144 -17.846500 8.471080 
-6.400880 -14.531300 10.412400 
-6.448140 -15.511200 9.917940 
-6.242040 -16.278900 9.396640 
-2.595480 -17.632200 8.554700 
-5.350980 -17.012199 8.916500 
-4.363060 -17.370399 8.631540 
-1.718300 -17.743799 8.515200 
-3.574740 -17.502300 8.577320 
-5.847480 -16.665701 9.140640 
-11.109500 -7.367220 -0.617662 
-11.211300 -7.255820 -1.632650 
-11.181700 -7.394920 -0.102151 
-8.675760 -9.163500 8.587660 
-9.244080 -8.715360 7.683660 
-9.741960 -8.274960 6.751740 
-10.474700 -7.498840 5.040280 
-11.232400 -7.376240 0.760422 
-11.386600 -6.256580 -5.788960 
-10.824600 -6.018740 -7.717120 
-11.567500 -6.419140 -4.249000 
-10.307500 -5.765600 -9.526940 
-11.435900 -6.947480 -2.747160 
-2.464040 -5.296260 -15.491000 
-3.622920 -5.302840 -15.243000 
-5.762440 -5.264600 -14.539200 
-7.711240 -5.322120 -13.259100 
-8.998640 -5.446420 -11.879000 
-1.047790 -5.292960 -15.703800 
-0.445778 -5.305980 -15.754400 
-11.215300 -7.395000 0.313074 
-10.156800 -7.857940 5.846780 
-5.099120 -16.608700 5.406020 
-8.109920 -11.362400 8.619880 
-7.999000 -13.287700 7.747320 
-7.856920 -14.301400 7.332080 
-7.630940 -15.277200 6.976780 
-6.492400 -16.013300 6.327520 
-4.007280 -17.197399 3.961160 
-3.538080 -17.895399 3.102980 
-7.137900 -15.663000 6.688880 
-8.061980 -4.970940 11.299900 
-8.161340 -3.861560 11.472100 
-7.182060 0.888440 11.779700 
-7.099000 0.950896 11.640300 
-7.108980 0.945922 11.562500 
-7.257780 0.473898 11.655000 
-7.346180 -0.050475 11.525500 
-7.608020 -0.739832 11.567900 
-7.866180 -1.368750 11.562900 
-8.151320 -2.869280 11.545200 
-8.865800 -5.730840 10.106500 
-9.673920 -5.294580 9.098460 
-11.201800 -3.675160 5.885140 
-10.325800 -4.793100 8.048520 
-10.825200 -4.245740 6.992740 
-11.578400 5.416900 3.448100 
-11.749100 3.425860 3.396000 
-11.850300 1.571770 3.445160 
-9.964400 -11.640800 2.338360 
-9.094900 -12.109600 1.606690 
-8.143140 -12.561600 0.985716 
-7.252800 -14.399200 0.442512 
-6.801200 -16.109900 0.122460 
-9.589440 -11.888300 1.977240 
-10.173500 -10.405000 3.177300 
-10.038400 -11.107000 2.894040 
-12.142700 1.646170 1.457840 
-6.386160 17.759100 1.855100 
-4.849140 18.449301 1.863370 
-8.231540 16.255800 1.664090 
-11.393000 10.420400 1.309500 
-11.923500 7.688260 1.177210 
-12.108300 3.372240 1.286710 
-12.036500 5.303960 1.161470 
-9.656160 14.699200 1.471760 
